-17.397 38.545 0.813 204 172 121
-17.487 38.905 0.809 193 168 112
-17.549 38.482 0.811 206 174 123
-17.382 38.476 0.814 202 169 118
-17.487 38.450 0.812 212 184 144
-17.389 38.721 0.812 196 166 116
-17.574 38.655 0.809 191 164 111
-17.566 38.430 0.811 199 163 105
-17.458 38.414 0.813 120 90 52
-17.443 38.413 0.813 120 90 54
-17.428 38.663 0.812 200 168 117
-17.435 38.538 0.812 203 171 120
-17.540 38.601 0.810 198 168 116
-17.456 38.917 0.810 193 166 113
-17.537 38.999 0.807 194 164 112
-17.370 39.122 0.810 185 158 103
-17.504 38.834 0.809 192 166 115
-17.347 39.047 0.811 187 157 105
-17.332 38.895 0.812 185 159 108
-17.530 38.695 0.810 194 165 109
-17.516 38.470 0.811 207 176 129
-17.408 38.976 0.810 193 166 113
-17.337 39.331 0.809 198 168 116
-17.381 38.863 0.811 188 158 106
-17.426 38.610 0.812 198 171 118
-17.631 38.667 0.808 194 168 117
-17.659 38.651 0.807 194 168 119
-17.366 38.864 0.812 190 163 110
-17.334 39.083 0.811 188 161 106
-17.713 38.658 0.806 194 167 120
-17.324 39.004 0.812 189 163 114
-17.725 38.613 0.806 198 170 123
-17.384 38.511 0.814 204 173 119
-17.738 38.675 0.806 199 171 123
-17.526 38.533 0.811 208 178 128
-17.539 38.536 0.810 205 177 127
-17.546 38.711 0.809 195 164 110
-17.497 38.556 0.811 200 172 124
-17.476 38.479 0.812 205 175 123
-17.717 38.519 0.807 199 172 127
-17.434 38.996 0.809 191 161 107
-17.416 38.611 0.812 198 171 118
-17.616 38.502 0.809 202 170 121
-17.603 38.643 0.809 194 168 117
-17.494 38.497 0.812 210 178 129
-17.555 38.512 0.810 201 173 123
-17.719 38.648 0.806 195 168 121
-17.487 39.002 0.808 192 163 107
-17.523 38.776 0.809 196 166 114
-17.343 38.919 0.812 191 165 116
-17.755 38.500 0.807 197 173 127
-17.490 38.632 0.811 190 167 115
-17.749 38.466 0.807 196 172 126
-17.587 38.414 0.810 134 98 48
-17.357 39.296 0.809 201 168 114
-17.304 39.406 0.809 195 165 105
-17.565 38.449 0.811 203 179 133
-17.425 38.634 0.812 188 160 110
-17.468 38.540 0.812 205 173 124
-17.756 38.610 0.806 201 172 128
-17.514 39.027 0.808 195 162 109
-17.721 38.485 0.807 198 174 130
-17.545 38.611 0.810 198 168 116
-17.435 38.462 0.813 210 178 131
-17.366 38.679 0.813 197 167 113
-17.593 38.680 0.808 191 165 114
-17.417 39.192 0.808 198 163 109
-17.466 38.469 0.812 203 175 125
-17.405 38.549 0.813 204 173 118
-17.459 38.425 0.813 184 146 97
-17.472 38.465 0.812 204 176 128
-17.378 38.503 0.814 202 171 117
-17.399 38.454 0.814 210 179 125
-17.636 38.741 0.807 195 167 117
-17.728 38.454 0.807 202 173 129
-17.585 38.576 0.809 196 165 111
-17.475 39.034 0.808 190 155 101
-17.561 38.943 0.807 185 156 100
-17.459 38.800 0.810 194 168 119
-17.527 38.528 0.811 206 176 126
-17.447 38.528 0.812 209 177 126
-17.412 38.894 0.811 189 163 112
-17.679 38.600 0.807 196 169 122
-17.536 38.616 0.810 198 169 113
-17.663 38.763 0.807 194 166 118
-17.513 38.914 0.808 192 165 110
-17.361 38.538 0.814 201 168 114
-17.667 38.650 0.807 195 169 120
-17.630 38.795 0.807 194 168 119
-17.641 38.758 0.807 195 167 119
-17.423 39.235 0.808 197 167 113
-17.592 38.525 0.810 201 171 121
-17.766 38.522 0.806 200 173 128
-17.448 39.133 0.808 188 158 104
-17.471 39.133 0.808 187 157 105
-17.689 38.630 0.807 186 158 108
-17.603 38.479 0.810 201 169 118
-17.395 38.824 0.811 195 165 115
-17.641 38.527 0.809 197 170 123
-17.452 39.212 0.808 190 160 110
-17.449 38.972 0.809 194 164 110
-17.407 38.833 0.811 198 164 116
-17.417 39.186 0.809 195 162 108
-17.427 38.774 0.811 195 164 117
-17.377 38.918 0.811 193 166 113
-17.451 38.445 0.813 212 185 142
-17.757 38.420 0.807 170 131 66
-17.668 38.448 0.809 207 180 135
-17.784 38.566 0.806 200 171 127
-17.458 38.590 0.812 200 170 118
-17.492 39.059 0.808 189 162 109
-17.411 39.160 0.809 193 161 104
-17.465 38.946 0.809 190 160 106
-17.390 38.571 0.813 203 173 121
-17.376 39.301 0.809 198 165 112
-17.362 39.353 0.809 199 168 114
-17.796 38.561 0.805 200 171 127
-17.346 38.696 0.813 200 166 120
-17.539 38.811 0.809 195 165 113
-17.487 38.780 0.810 191 167 119
-17.617 38.778 0.807 194 168 119
-17.500 38.785 0.810 196 168 118
-17.465 39.083 0.808 184 157 102
-17.651 38.710 0.807 193 167 118
-17.488 38.804 0.810 193 167 118
-17.491 38.989 0.808 190 164 107
-17.384 38.484 0.814 204 171 118
-17.394 38.521 0.813 204 173 119
-17.455 38.711 0.811 194 168 117
-17.399 38.992 0.810 194 164 114
-17.664 38.815 0.806 192 161 114
-17.700 38.692 0.806 195 169 120
-17.349 38.554 0.814 196 165 108
-17.612 38.835 0.807 198 166 117
-17.553 38.825 0.808 195 165 115
-17.369 39.317 0.809 206 172 124
-17.605 38.475 0.810 201 169 118
-17.641 38.443 0.809 208 176 135
-17.617 38.467 0.809 201 171 121
-17.455 38.946 0.809 190 160 106
-17.421 38.956 0.810 187 159 109
-17.458 38.730 0.811 191 163 116
-17.428 38.464 0.813 207 175 126
-17.689 38.730 0.806 195 166 122
-17.618 38.785 0.807 194 168 119
-17.811 38.528 0.805 201 174 131
-17.677 38.693 0.807 194 168 119
-17.607 38.764 0.808 192 166 115
-17.610 38.793 0.807 194 167 120
-17.394 38.480 0.814 204 170 122
-17.331 39.601 0.782 225 195 145
-17.458 39.619 0.786 214 179 123
-17.379 39.592 0.798 221 194 149
-17.404 39.596 0.798 217 190 147
-17.554 39.621 0.799 223 193 157
-17.314 39.584 0.796 214 186 139
-17.360 39.588 0.799 210 182 135
-17.458 39.602 0.802 219 195 147
-17.390 39.596 0.796 217 189 149
-17.335 39.590 0.793 218 188 138
-17.439 39.597 0.803 219 192 149
-17.513 39.629 0.786 94 71 30
-17.327 39.590 0.792 219 188 141
-17.301 39.570 0.806 214 184 134
-17.394 39.599 0.794 212 184 144
-17.392 39.600 0.793 212 184 144
-17.462 39.602 0.802 216 192 144
-17.344 39.578 0.805 210 180 130
-17.588 39.628 0.798 187 151 93
-17.500 39.627 0.786 159 127 78
-17.366 39.607 0.783 220 193 150
-17.463 39.617 0.789 214 196 130
-17.441 39.615 0.787 249 226 184
-17.409 39.600 0.796 230 202 162
-17.480 39.614 0.794 218 196 155
-17.319 39.584 0.796 219 188 141
-17.570 39.628 0.795 191 152 93
-17.592 39.628 0.798 184 148 90
-17.402 39.622 0.775 132 114 50
-17.512 39.614 0.799 213 191 152
-17.339 39.597 0.787 208 178 128
-17.382 39.595 0.796 223 196 153
-17.451 39.620 0.784 200 161 96
-17.382 39.595 0.796 223 196 153
-17.390 39.621 0.774 110 92 44
-17.327 39.589 0.793 220 190 140
-17.350 39.584 0.801 213 185 135
-17.490 39.618 0.792 218 196 146
-17.455 39.603 0.800 205 184 141
-17.464 39.611 0.794 228 199 165
-17.304 39.569 0.807 215 185 135
-17.392 39.608 0.786 224 201 159
-17.343 39.601 0.784 227 197 147
-17.401 39.598 0.796 216 188 148
-17.460 39.620 0.786 217 182 126
-17.332 39.587 0.795 220 190 140
-17.498 39.625 0.787 159 127 78
-17.323 39.596 0.786 226 195 148
-17.346 39.611 0.776 227 191 133
-17.489 39.620 0.790 208 179 109
-17.310 39.572 0.805 214 184 134
-17.414 39.599 0.797 224 194 156
-17.510 39.617 0.796 214 190 146
-17.434 39.605 0.795 222 200 159
-17.384 39.587 0.803 219 192 147
-17.437 39.627 0.776 51 42 11
-17.338 39.582 0.801 217 187 135
-17.435 39.615 0.786 237 215 174
-17.417 39.619 0.779 202 172 122
-17.379 39.626 0.768 36 33 18
-17.476 39.629 0.780 35 17 13
-17.353 39.621 0.768 134 110 74
-17.620 39.633 0.798 165 139 80
-17.362 39.586 0.801 210 182 135
-17.510 39.622 0.792 225 195 135
-17.541 39.622 0.796 221 187 123
-17.391 39.623 0.772 121 104 52
-17.561 39.628 0.793 193 151 91
-17.365 39.604 0.785 214 191 149
-17.384 39.617 0.777 213 177 115
-17.533 39.619 0.797 213 192 137
-17.427 39.623 0.777 110 84 33
-17.397 39.600 0.793 227 199 159
-17.556 39.632 0.790 84 78 26
-17.492 39.615 0.795 225 202 161
-17.390 39.626 0.769 49 45 20
-17.328 39.599 0.784 217 186 139
-17.398 39.592 0.801 217 189 149
-17.535 39.628 0.790 155 130 73
-17.409 39.602 0.794 230 202 162
-17.464 39.602 0.802 210 188 149
-17.473 39.621 0.787 185 160 78
-17.337 39.592 0.792 221 191 141
-17.416 39.596 0.800 226 196 158
-17.331 39.581 0.800 221 191 141
-17.516 39.630 0.785 94 71 30
-17.363 39.606 0.783 213 190 148
-17.356 39.616 0.773 194 164 104
-17.446 39.611 0.792 225 198 155
-17.518 39.614 0.800 212 188 150
-17.350 39.618 0.771 194 161 108
-17.448 39.619 0.785 202 170 113
-17.327 39.589 0.793 219 189 139
-17.347 39.607 0.780 230 196 150
-17.459 39.614 0.791 228 205 164
-17.288 39.568 0.806 214 186 138
-17.508 39.611 0.801 229 203 154
-17.346 39.592 0.793 210 180 130
-17.350 39.614 0.774 215 179 117
-17.558 39.625 0.796 212 170 94
-17.362 39.597 0.791 224 196 149
-17.384 39.621 0.773 87 68 26
-17.433 39.610 0.790 225 198 155
-17.397 39.603 0.791 227 199 159
-17.422 39.613 0.786 211 189 152
-17.620 39.633 0.798 165 139 80
-17.374 39.621 0.771 79 60 27
-17.455 39.605 0.798 218 194 148
-17.308 39.581 0.797 216 188 140
-17.346 39.589 0.795 218 188 138
-17.337 39.590 0.793 217 187 137
-17.428 39.624 0.777 110 84 33
-17.430 39.627 0.775 51 44 15
-16.987 38.640 0.815 200 167 113
-17.045 38.605 0.815 192 160 101
-17.183 38.496 0.811 190 154 102
-16.940 38.677 0.816 199 167 116
-17.148 38.534 0.814 199 162 110
-17.198 38.488 0.812 198 160 115
-17.155 38.526 0.813 200 164 112
-17.206 38.496 0.814 201 161 112
-17.141 38.534 0.813 196 160 108
-17.190 38.508 0.815 201 164 112
-17.165 38.515 0.813 196 160 110
-17.025 38.621 0.816 191 159 100
-17.208 38.481 0.811 196 159 114
-17.010 38.626 0.815 195 163 104
-16.986 38.648 0.816 196 165 110
-17.159 38.523 0.814 198 162 112
-17.066 38.590 0.815 187 155 98
-17.104 38.553 0.812 192 157 103
-17.211 38.479 0.812 195 158 113
-17.032 38.606 0.814 193 163 103
-17.028 38.616 0.815 192 160 101
-17.111 38.549 0.812 192 159 106
-17.113 38.554 0.814 194 158 106
-17.206 38.501 0.815 200 160 111
-17.291 38.439 0.814 206 178 128
-16.948 38.670 0.816 198 164 116
-17.111 38.550 0.813 192 159 106
-17.137 38.540 0.814 196 160 108
-17.191 38.491 0.811 198 162 112
-16.974 38.654 0.816 193 163 103
-17.128 38.545 0.814 195 159 107
-16.899 38.704 0.816 205 172 121
-17.207 38.496 0.814 201 161 112
-17.232 38.469 0.812 196 160 112
-16.920 38.694 0.817 205 173 122
-17.083 38.584 0.816 187 156 102
-17.198 38.484 0.811 198 160 115
-16.953 38.669 0.816 198 166 117
-16.964 38.661 0.816 197 164 111
-16.990 38.639 0.815 201 168 114
-17.339 38.414 0.815 120 91 59
-17.327 38.420 0.815 159 127 88
-17.103 38.562 0.814 194 159 105
-17.172 38.497 0.810 191 156 102
-16.995 38.635 0.815 198 166 109
-17.036 38.613 0.815 189 157 98
-17.035 38.604 0.814 192 162 102
-16.943 38.674 0.816 204 171 120
-17.025 38.621 0.816 191 159 100
-17.074 38.582 0.814 187 154 100
-17.195 38.505 0.814 199 162 110
-17.040 38.601 0.814 192 162 102
-17.196 38.500 0.814 198 162 114
-17.245 38.469 0.814 196 160 110
-16.955 38.665 0.815 201 169 118
-16.850 38.741 0.817 205 175 125
-17.095 38.574 0.815 192 159 106
-17.056 38.600 0.815 188 156 97
-16.934 38.681 0.816 200 168 117
-17.098 38.567 0.814 195 159 107
-16.999 38.637 0.816 192 161 104
-17.198 38.496 0.813 199 161 116
-17.170 38.509 0.812 196 160 110
-16.923 38.690 0.816 206 174 123
-17.102 38.565 0.815 196 160 108
-16.936 38.681 0.816 199 167 116
-17.192 38.494 0.812 198 162 112
-17.119 38.561 0.816 195 159 109
-17.282 38.444 0.814 205 172 119
-17.146 38.541 0.815 197 160 108
-17.012 38.621 0.814 190 158 99
-17.101 38.553 0.812 192 157 103
-17.211 38.494 0.814 201 161 112
-17.175 38.512 0.813 202 164 115
-17.084 38.565 0.812 190 157 103
-17.118 38.557 0.815 194 158 106
-17.018 38.616 0.814 192 160 101
-17.146 39.096 0.812 184 154 94
-17.219 39.302 0.810 201 171 119
-17.171 39.199 0.811 199 163 111
-17.030 39.586 0.810 218 197 154
-17.229 39.217 0.811 197 165 114
-17.209 39.552 0.809 216 189 144
-17.262 39.558 0.809 214 185 141
-17.073 39.432 0.810 209 181 133
-17.319 38.725 0.813 198 168 118
-17.293 38.782 0.813 194 164 114
-17.046 39.445 0.810 212 182 132
-17.090 39.410 0.810 207 176 121
-17.224 39.422 0.810 201 168 115
-17.209 39.312 0.810 203 171 124
-17.199 39.236 0.811 197 162 106
-17.175 38.903 0.813 188 161 108
-17.247 39.500 0.809 213 183 133
-17.222 38.857 0.813 189 158 111
-17.150 39.361 0.810 208 177 123
-17.130 39.213 0.811 197 165 108
-17.142 39.456 0.810 204 173 126
-17.185 39.560 0.809 214 182 141
-17.199 39.330 0.810 203 173 123
-17.202 39.063 0.812 192 162 108
-16.915 39.580 0.810 224 196 146
-17.265 39.507 0.809 209 181 134
-17.095 39.389 0.811 201 170 115
-17.067 39.288 0.811 196 165 108
-17.169 39.090 0.812 187 161 104
-17.148 38.943 0.813 191 161 109
-17.116 39.315 0.811 200 170 118
-17.294 39.267 0.810 193 162 105
-17.280 38.581 0.814 196 160 108
-17.292 39.106 0.811 194 164 110
-17.314 38.789 0.813 196 168 121
-17.042 39.512 0.810 216 188 141
-17.148 39.313 0.811 203 171 112
-17.071 39.594 0.810 222 194 155
-17.159 39.540 0.809 213 184 140
-17.255 38.907 0.813 190 160 106
-17.043 39.449 0.810 220 190 140
-16.984 39.537 0.810 218 184 136
-17.180 39.100 0.812 189 159 99
-17.290 38.816 0.813 182 153 97
-17.102 39.390 0.811 206 175 118
-16.976 39.552 0.810 225 193 136
-17.279 39.187 0.811 186 155 100
-17.210 39.089 0.812 192 161 106
-17.165 39.075 0.812 190 159 104
-17.048 39.217 0.812 198 167 113
-17.174 39.317 0.811 204 168 116
-17.265 39.459 0.809 210 176 128
-17.254 39.335 0.810 202 170 119
-17.000 39.298 0.812 203 173 119
-17.128 39.103 0.812 188 156 95
-17.212 39.497 0.809 209 181 134
-17.158 39.287 0.811 201 169 118
-17.215 39.531 0.809 218 191 148
-16.999 39.541 0.810 223 194 150
-17.101 39.530 0.810 221 192 150
-17.004 39.396 0.811 209 178 123
-17.085 39.516 0.810 214 187 142
-17.238 39.007 0.812 191 160 106
-17.274 39.300 0.810 197 163 115
-17.263 39.539 0.809 213 182 136
-17.141 39.353 0.811 204 173 119
-17.297 39.050 0.812 195 162 109
-17.289 39.413 0.809 202 167 111
-17.046 39.324 0.811 200 168 107
-17.065 39.552 0.810 224 196 157
-17.162 39.184 0.811 191 158 104
-17.247 38.666 0.814 194 161 110
-17.227 38.727 0.814 197 165 116
-17.212 39.021 0.812 194 163 108
-17.016 39.547 0.810 219 194 153
-17.277 38.721 0.814 196 166 116
-17.119 39.181 0.812 195 160 102
-17.044 39.329 0.811 200 168 107
-17.204 39.320 0.810 202 172 122
-17.205 39.016 0.812 196 163 110
-17.291 39.236 0.811 196 166 114
-17.128 39.070 0.812 192 157 99
-17.303 38.587 0.814 192 161 107
-16.902 39.612 0.810 220 197 153
-17.300 39.079 0.811 190 159 102
-16.966 39.590 0.810 226 193 142
-17.294 38.659 0.814 198 166 109
-17.269 39.109 0.811 188 157 100
-17.195 39.222 0.811 191 159 102
-17.294 38.834 0.813 196 163 118
-17.081 39.430 0.810 203 175 125
-17.047 39.343 0.811 203 171 112
-17.072 39.391 0.811 199 170 114
-17.040 39.274 0.812 198 169 113
-17.302 39.106 0.811 188 158 106
-16.925 39.486 0.811 218 186 125
-17.118 39.126 0.812 189 158 101
-17.126 38.974 0.813 194 163 109
-16.888 39.618 0.810 232 205 162
-17.241 38.800 0.813 196 166 116
-17.027 39.394 0.811 205 175 123
-16.951 39.547 0.810 228 196 139
-17.080 39.342 0.811 205 170 112
-17.172 38.943 0.813 189 159 109
-17.285 38.607 0.814 195 162 109
-17.255 39.254 0.811 193 160 107
-17.303 39.143 0.811 190 159 104
-17.177 38.931 0.813 191 161 111
-17.262 39.446 0.809 209 176 123
-17.232 39.215 0.811 193 159 111
-17.218 39.522 0.809 218 191 146
-17.228 39.074 0.812 190 163 108
-17.033 39.454 0.811 210 183 130
-17.055 39.207 0.812 201 170 113
-17.115 39.421 0.810 208 177 122
-17.194 39.215 0.811 200 174 115
-17.103 39.287 0.811 197 166 109
-17.082 39.443 0.810 214 183 136
-17.199 39.193 0.811 201 168 114
-17.294 39.268 0.810 193 162 105
-17.162 39.438 0.810 207 177 125
-17.012 39.312 0.811 204 175 117
-17.168 39.082 0.812 183 158 102
-17.266 39.441 0.809 207 174 120
-17.059 39.514 0.810 212 185 140
-17.277 38.871 0.813 176 148 98
-17.238 39.255 0.811 199 163 111
-17.008 39.371 0.811 208 175 121
-17.299 38.877 0.813 199 169 117
-17.161 39.206 0.811 199 168 114
-17.184 39.466 0.810 213 180 127
-17.022 39.355 0.811 205 173 116
-17.136 39.365 0.811 206 175 121
-17.095 39.570 0.810 215 187 147
-17.096 39.124 0.812 191 157 96
-17.067 39.433 0.810 208 180 132
-16.969 39.441 0.811 216 178 116
-17.252 38.859 0.813 192 162 112
-17.120 39.134 0.812 195 160 102
-17.302 39.093 0.811 201 170 116
-17.234 38.857 0.813 189 157 110
-17.221 38.732 0.814 194 166 116
-16.893 39.610 0.810 226 198 150
-17.038 39.234 0.812 200 168 111
-17.263 39.394 0.810 203 170 117
-17.032 39.385 0.811 204 175 119
-17.065 39.349 0.811 205 173 114
-17.267 38.839 0.813 189 163 114
-17.029 39.499 0.810 213 186 139
-17.101 39.162 0.812 196 161 103
-17.175 38.965 0.813 193 163 113
-17.224 38.928 0.813 192 162 110
-17.120 39.527 0.810 214 185 143
-17.262 38.712 0.814 196 165 121
-16.918 39.566 0.810 226 196 144
-17.177 39.504 0.810 212 181 137
-17.240 38.786 0.813 192 161 114
-17.130 39.188 0.812 193 163 103
-16.912 39.589 0.810 222 196 147
-17.164 39.143 0.812 193 161 102
-17.205 39.188 0.811 192 159 105
-17.090 39.416 0.810 211 184 131
-17.236 38.898 0.813 186 159 104
-17.110 39.463 0.810 213 184 140
-17.245 39.268 0.811 198 162 110
-17.162 39.537 0.809 221 192 148
-17.194 39.011 0.812 191 158 107
-17.128 39.553 0.809 215 187 147
-17.238 38.869 0.813 186 156 106
-17.191 39.384 0.810 205 172 119
-17.092 39.586 0.809 220 192 153
-17.081 39.556 0.810 213 185 145
-17.302 38.838 0.813 186 158 110
-16.941 39.451 0.811 219 185 121
-16.949 39.458 0.811 216 183 116
-17.194 39.432 0.810 203 173 121
-17.180 39.455 0.810 215 183 134
-17.192 39.420 0.810 202 172 118
-17.174 39.211 0.811 204 172 123
-17.149 38.988 0.813 193 163 111
-17.185 38.966 0.813 194 164 114
-16.992 39.578 0.810 225 199 150
-17.139 39.386 0.810 206 175 120
-17.281 39.229 0.811 196 166 116
-17.196 39.141 0.812 189 158 103
-17.142 39.406 0.810 205 175 121
-17.240 38.823 0.813 190 161 105
-17.212 39.041 0.812 190 158 109
-17.164 39.272 0.811 200 167 122
-17.291 39.334 0.810 203 170 116
-17.049 39.230 0.812 206 175 118
-17.057 39.347 0.811 203 171 112
-17.181 39.458 0.810 212 180 131
-17.264 39.014 0.812 190 159 105
-17.056 39.571 0.810 222 197 156
-17.170 39.241 0.811 192 166 109
-17.160 39.237 0.811 194 163 106
-17.065 39.517 0.810 218 191 148
-17.217 38.831 0.813 190 160 106
-17.302 39.158 0.811 193 163 109
-17.099 39.045 0.813 198 166 109
-17.078 39.120 0.812 186 158 95
-17.305 38.844 0.813 193 165 117
-17.254 39.257 0.811 197 164 111
-17.197 39.475 0.810 210 178 129
-17.120 39.503 0.810 215 184 138
-17.065 39.263 0.811 200 168 111
-16.942 39.514 0.811 221 187 124
-17.244 39.389 0.810 200 167 116
-17.307 38.966 0.812 189 163 112
-17.121 39.549 0.810 219 190 150
-17.309 39.049 0.812 193 160 107
-17.193 39.477 0.810 209 177 128
-17.121 39.093 0.812 189 157 98
-16.985 39.429 0.811 213 178 120
-16.987 39.558 0.810 221 191 139
-17.295 38.728 0.813 199 169 117
-17.302 39.202 0.811 188 156 105
-17.175 39.372 0.810 204 168 118
-17.138 39.535 0.810 213 186 143
-16.901 39.621 0.810 222 201 156
-16.965 39.426 0.811 215 179 117
-17.227 39.047 0.812 191 160 106
-17.311 38.867 0.813 190 160 108
-17.076 39.273 0.811 193 158 102
-17.072 39.242 0.812 197 168 108
-16.989 39.461 0.811 207 175 114
-17.210 38.789 0.813 195 165 115
-17.126 39.390 0.810 206 175 120
-17.115 39.110 0.812 190 158 99
-17.178 39.227 0.811 193 162 107
-17.116 39.162 0.812 197 162 104
-17.299 38.773 0.813 192 164 114
-17.274 38.815 0.813 193 164 108
-17.288 38.954 0.812 192 162 112
-17.288 38.774 0.813 193 165 115
-16.967 39.477 0.811 218 180 115
-16.942 39.583 0.810 223 193 133
-17.022 39.443 0.811 203 177 126
-17.117 39.024 0.813 193 162 107
-17.055 39.533 0.810 216 189 146
-17.220 39.315 0.810 203 172 117
-17.124 39.162 0.812 194 162 103
-17.136 39.149 0.812 190 158 99
-16.944 39.527 0.811 221 189 132
-17.294 39.331 0.810 198 165 111
-17.140 39.201 0.811 196 164 107
-16.996 39.574 0.810 221 194 147
-17.174 39.300 0.811 200 170 118
-17.079 39.277 0.811 189 154 98
-17.271 39.315 0.810 202 169 118
-17.212 38.980 0.812 191 161 109
-17.293 38.978 0.812 180 159 106
-17.228 39.460 0.810 211 180 133
-17.313 38.832 0.813 194 160 114
-17.187 38.991 0.812 190 160 110
-17.220 39.233 0.811 199 168 113
-17.084 39.245 0.811 197 165 104
-16.933 39.561 0.810 228 193 139
-16.953 39.449 0.811 216 178 113
-17.214 39.557 0.809 212 186 137
-17.036 39.522 0.810 220 191 149
-17.238 39.533 0.809 204 176 129
-17.020 39.446 0.811 213 186 131
-17.171 39.463 0.810 201 170 116
-17.141 39.375 0.810 202 172 120
-17.088 39.352 0.811 204 172 115
-17.060 39.200 0.812 197 165 106
-17.290 38.670 0.814 198 166 109
-17.224 39.390 0.810 204 171 120
-17.250 39.422 0.810 205 170 116
-17.261 38.948 0.812 192 161 107
-17.113 39.086 0.812 187 156 99
-17.274 38.739 0.813 199 171 121
-17.171 38.984 0.813 193 163 111
-16.979 39.366 0.811 206 171 115
-17.301 38.690 0.814 200 168 109
-17.092 39.103 0.812 183 153 93
-17.197 38.939 0.813 190 160 110
-17.281 39.503 0.809 209 181 131
-16.972 39.358 0.811 205 175 113
-17.092 39.517 0.810 212 185 140
-17.192 39.334 0.810 202 170 121
-17.135 39.259 0.811 196 167 111
-17.112 39.020 0.813 190 159 104
-16.997 39.455 0.811 207 176 122
-17.082 39.407 0.811 206 175 121
-17.174 38.903 0.813 187 160 107
-17.201 39.575 0.809 220 193 150
-17.158 39.154 0.812 193 158 100
-17.091 39.546 0.810 218 190 150
-17.200 39.467 0.810 209 177 128
-17.220 39.409 0.810 205 172 119
-17.180 39.384 0.810 206 173 120
-17.023 39.539 0.810 215 194 151
-17.194 39.036 0.812 193 162 108
-17.224 38.838 0.813 194 162 113
-17.277 39.496 0.809 210 180 130
-17.256 39.333 0.810 204 172 121
-16.969 39.541 0.810 219 184 126
-17.175 38.978 0.813 196 166 116
-17.067 39.257 0.811 200 168 109
-17.199 39.447 0.810 208 180 130
-17.273 39.266 0.810 198 166 117
-17.172 39.159 0.812 194 162 103
-16.905 39.565 0.810 219 191 141
-17.184 38.975 0.813 192 162 112
-17.147 39.115 0.812 190 159 102
-17.340 38.446 0.815 206 176 124
-17.109 39.299 0.811 202 171 116
-17.060 39.476 0.810 206 176 124
-17.071 39.103 0.812 185 155 93
-17.201 39.052 0.812 193 163 109
-17.279 39.146 0.811 194 163 109
-17.327 38.770 0.813 195 165 115
-17.312 38.825 0.813 192 159 106
-17.241 39.381 0.810 202 169 116
-17.149 39.224 0.811 206 174 117
-17.083 39.287 0.811 198 166 109
-17.328 38.541 0.814 201 166 110
-17.297 39.165 0.811 194 164 110
-17.175 39.419 0.810 212 181 126
-17.274 38.897 0.813 184 157 104
-17.064 39.332 0.811 201 171 111
-17.305 38.967 0.812 189 163 112
-17.256 39.484 0.809 209 179 129
-17.185 38.822 0.813 193 163 111
-17.121 39.407 0.810 207 175 128
-17.098 39.124 0.812 190 156 95
-17.207 39.331 0.810 204 172 123
-17.300 39.026 0.812 189 166 116
-17.295 39.017 0.812 186 159 106
-17.053 39.362 0.811 204 172 113
-17.175 39.405 0.810 205 174 120
-17.133 39.537 0.810 215 188 145
-17.136 39.242 0.811 192 160 99
-17.281 38.620 0.814 200 165 109
-17.132 39.300 0.811 202 171 117
-16.930 39.527 0.811 226 193 139
-17.245 38.687 0.814 196 163 109
-17.147 39.272 0.811 204 172 123
-17.002 39.295 0.812 205 175 121
-17.309 38.662 0.814 196 164 107
-16.933 39.566 0.810 228 195 142
-17.212 38.980 0.812 191 161 109
-17.273 38.956 0.812 189 159 107
-17.224 39.394 0.810 203 170 119
-17.098 39.177 0.812 193 159 98
-17.120 39.384 0.810 208 177 120
-17.087 39.543 0.810 218 191 148
-17.257 38.761 0.813 195 169 120
-17.280 38.749 0.813 188 158 108
-17.215 39.424 0.810 201 168 115
-17.193 39.481 0.810 210 178 131
-17.069 39.222 0.812 203 174 114
-17.163 39.027 0.812 195 162 109
-17.271 38.899 0.813 184 157 104
-17.107 39.212 0.812 197 162 106
-17.242 39.019 0.812 195 163 112
-17.134 39.163 0.812 195 163 104
-17.187 39.417 0.810 203 174 118
-17.124 38.982 0.813 194 163 109
-17.177 38.846 0.813 188 156 105
-17.150 39.057 0.812 195 162 108
-17.284 38.773 0.813 192 164 116
-17.098 39.327 0.811 200 169 115
-17.207 38.807 0.813 194 164 112
-17.239 38.814 0.813 184 154 100
-17.274 39.535 0.809 214 183 139
-17.017 39.584 0.810 216 195 152
-17.295 39.265 0.810 193 162 105
-17.295 39.253 0.810 190 164 107
-17.284 38.916 0.812 189 159 107
-16.956 39.606 0.810 229 198 151
-17.021 39.366 0.811 207 172 116
-17.007 39.373 0.811 207 175 118
-17.230 39.077 0.812 196 169 114
-17.179 38.873 0.813 184 157 104
-17.170 39.432 0.810 203 173 121
-17.115 39.160 0.812 197 162 104
-16.910 39.591 0.810 224 198 149
-17.288 39.386 0.810 199 167 110
-17.221 39.112 0.812 187 161 104
-17.234 39.250 0.811 198 165 111
-17.331 38.488 0.815 204 168 108
-17.091 39.146 0.812 193 161 102
-17.230 39.547 0.809 217 189 142
-17.149 39.436 0.810 210 180 130
-17.305 38.734 0.813 189 161 111
-17.101 39.399 0.810 210 179 124
-16.972 39.560 0.810 222 191 134
-17.300 38.946 0.812 190 162 112
-17.235 38.878 0.813 188 158 106
-17.271 39.079 0.812 192 159 105
-17.284 39.192 0.811 190 160 106
-17.316 38.775 0.813 193 162 115
-17.043 39.399 0.811 211 179 128
-17.132 39.248 0.811 195 164 107
-17.246 38.816 0.813 189 159 105
-17.222 38.766 0.814 195 165 115
-17.129 39.077 0.812 187 152 94
-17.300 38.963 0.812 188 162 111
-17.043 39.190 0.812 194 162 101
-17.112 39.537 0.810 221 192 150
-17.024 39.524 0.810 220 193 148
-17.045 39.452 0.810 210 182 132
-17.285 38.608 0.814 195 162 109
-17.329 38.565 0.814 199 168 111
-17.165 39.489 0.810 208 176 129
-17.258 39.052 0.812 194 161 110
-16.998 39.516 0.810 222 192 140
-17.107 39.391 0.811 206 175 118
-17.302 38.621 0.814 199 164 108
-17.323 38.682 0.814 199 168 113
-17.230 39.283 0.811 198 167 112
-17.241 39.235 0.811 197 161 109
-17.288 39.207 0.811 188 158 106
-17.009 39.512 0.810 213 188 134
-17.308 38.512 0.815 205 166 107
-17.335 38.615 0.814 198 165 111
-16.929 39.577 0.810 227 196 141
-17.207 39.327 0.810 204 172 123
-17.304 38.707 0.814 199 167 120
-17.325 38.656 0.814 198 167 110
-16.995 39.352 0.811 205 173 116
-17.138 39.114 0.812 185 155 95
-17.266 39.528 0.809 215 184 138
-17.041 39.182 0.812 196 164 103
-17.158 38.920 0.813 184 157 104
-17.161 39.288 0.811 201 169 118
-17.227 38.736 0.814 194 164 114
-17.243 38.816 0.813 187 157 103
-17.272 39.408 0.810 202 167 111
-17.162 39.332 0.811 210 177 123
-17.278 38.687 0.814 198 166 109
-17.129 39.488 0.810 212 183 139
-17.085 39.579 0.810 216 188 149
-17.271 39.040 0.812 191 158 104
-17.193 39.179 0.811 190 157 103
-17.172 38.871 0.813 185 155 105
-17.125 39.241 0.811 193 162 98
-16.991 39.367 0.811 211 176 120
-17.017 39.494 0.810 212 184 136
-17.258 38.999 0.812 188 158 106
-17.167 39.104 0.812 189 157 98
-17.201 39.168 0.811 190 161 105
-17.120 39.316 0.811 200 170 118
-17.247 39.015 0.812 193 161 110
-17.236 39.463 0.809 207 179 131
-17.098 39.244 0.811 194 162 101
-17.234 39.315 0.810 204 169 115
-17.279 38.713 0.814 197 166 122
-17.126 39.087 0.812 189 157 98
-17.201 39.405 0.810 204 173 119
-17.098 39.180 0.812 189 157 96
-17.198 39.083 0.812 193 161 104
-17.229 38.995 0.812 189 158 103
-17.257 38.820 0.813 187 158 102
-17.234 39.100 0.812 191 165 108
-17.044 39.201 0.812 203 171 114
-17.103 39.317 0.811 202 172 118
-17.328 38.525 0.814 204 169 113
-17.137 39.002 0.813 195 166 110
-17.233 39.096 0.812 191 164 109
-17.000 39.565 0.810 224 196 149
-17.044 39.209 0.812 205 172 118
-17.014 39.331 0.811 200 170 110
-17.316 38.524 0.815 205 169 111
-16.993 39.532 0.810 224 193 146
-17.116 39.274 0.811 197 166 109
-17.065 39.166 0.812 192 162 100
-17.184 38.894 0.813 189 159 109
-17.088 39.545 0.810 216 188 148
-17.193 39.453 0.810 211 183 133
-17.271 38.850 0.813 190 164 113
-17.214 38.976 0.812 190 160 110
-17.275 39.010 0.812 188 157 102
-17.022 39.411 0.811 213 184 128
-17.230 38.909 0.813 183 156 103
-17.254 38.919 0.813 192 161 106
-17.251 39.343 0.810 201 170 116
-17.328 38.488 0.815 204 168 108
-17.213 39.014 0.812 196 163 109
-17.231 39.059 0.812 190 159 105
-17.279 39.429 0.809 202 165 110
-17.185 39.361 0.810 204 169 115
-16.953 39.559 0.810 226 192 131
-17.277 38.775 0.813 195 167 119
-17.101 39.450 0.810 218 187 141
-17.210 38.965 0.812 192 162 112
-17.287 38.875 0.813 188 161 108
-17.285 38.881 0.813 193 166 113
-17.135 39.544 0.809 211 184 141
-17.293 39.220 0.811 188 158 108
-17.310 38.765 0.813 193 165 115
-17.097 39.573 0.810 222 194 154
-17.230 38.832 0.813 195 165 111
-17.217 39.427 0.810 206 173 120
-16.936 39.517 0.811 221 185 125
-17.265 39.104 0.811 188 157 100
-17.144 39.539 0.809 212 185 142
-17.023 39.510 0.810 214 187 140
-17.254 39.545 0.809 221 190 144
-17.234 39.556 0.809 212 184 137
-16.946 39.613 0.810 228 198 148
-17.237 39.524 0.809 208 180 133
-17.199 39.194 0.811 201 168 114
-17.124 39.516 0.810 212 183 139
-17.253 39.205 0.811 185 151 103
-17.185 39.139 0.812 188 159 101
-17.226 39.185 0.811 187 158 102
-17.108 39.061 0.812 188 158 98
-17.202 39.248 0.811 192 157 103
-17.235 38.839 0.813 190 158 109
-16.969 39.590 0.810 226 194 145
-17.020 39.560 0.810 226 197 157
-17.208 38.925 0.813 200 170 120
-17.074 39.553 0.810 221 193 154
-16.948 39.472 0.811 219 181 118
-17.342 38.434 0.815 196 164 113
-17.296 38.645 0.814 199 166 112
-16.904 39.590 0.810 227 200 153
-17.101 39.360 0.811 203 172 118
-17.022 39.360 0.811 207 172 116
-16.939 39.465 0.811 216 185 120
-17.137 39.280 0.811 197 166 112
-17.167 39.349 0.810 201 168 115
-17.200 39.305 0.811 203 171 120
-16.967 39.391 0.811 206 172 111
-17.236 39.516 0.809 200 172 125
-16.892 39.569 0.811 227 197 145
-17.065 39.449 0.810 215 184 137
-17.262 39.175 0.811 190 157 106
-17.278 38.768 0.813 195 169 120
-17.248 39.465 0.809 206 175 128
-17.295 38.575 0.814 198 163 109
-17.152 39.360 0.810 205 174 120
-17.141 39.384 0.810 204 173 119
-17.150 39.081 0.812 190 157 103
-17.008 39.474 0.810 216 185 138
-17.086 39.110 0.812 191 161 99
-17.218 38.738 0.814 188 160 110
-17.203 39.361 0.810 205 169 119
-17.166 38.958 0.813 196 166 116
-17.268 38.925 0.812 192 160 109
-17.250 39.436 0.810 205 172 118
-17.281 39.047 0.812 192 162 108
-16.953 39.580 0.810 226 191 133
-17.198 39.063 0.812 192 161 106
-17.273 38.858 0.813 189 161 111
-17.282 39.170 0.811 194 161 108
-17.301 38.879 0.813 198 168 116
-17.104 39.504 0.810 211 180 134
-17.215 39.208 0.811 198 168 116
-17.273 39.019 0.812 192 161 107
-17.177 39.153 0.812 188 156 97
-17.072 39.561 0.810 222 194 155
-17.273 39.466 0.809 208 172 122
-17.223 39.410 0.810 206 173 120
-17.283 39.472 0.809 206 175 121
-17.294 39.348 0.810 203 170 117
-17.155 39.467 0.810 217 186 139
-17.034 39.225 0.812 199 166 113
-17.150 39.473 0.810 210 182 135
-17.107 39.545 0.810 209 180 140
-16.933 39.523 0.811 221 186 128
-17.263 39.522 0.809 209 178 132
-17.042 39.393 0.811 206 175 121
-17.300 38.627 0.814 202 167 111
-17.155 39.245 0.811 195 164 109
-17.280 39.178 0.811 196 163 109
-17.216 39.196 0.811 197 166 112
-17.326 38.639 0.814 198 167 112
-17.075 39.322 0.811 201 170 113
-17.114 39.080 0.812 186 155 98
-17.318 38.742 0.813 197 167 113
-17.129 39.407 0.810 207 177 125
-17.243 38.744 0.814 196 170 119
-17.050 39.260 0.812 202 171 107
-17.204 39.188 0.811 192 159 105
-17.266 39.467 0.809 205 174 120
-17.054 39.472 0.810 205 175 121
-17.194 39.063 0.812 191 160 103
-17.229 39.098 0.812 192 165 110
-17.044 39.332 0.811 200 168 107
-17.236 39.295 0.810 201 169 120
-17.066 39.486 0.810 214 188 139
-17.304 38.616 0.814 200 165 111
-17.093 39.495 0.810 211 180 134
-17.232 39.181 0.811 185 159 102
-17.177 39.310 0.811 207 171 119
-17.320 38.695 0.813 197 166 119
-17.187 39.254 0.811 198 165 112
-17.195 39.265 0.811 201 169 122
-17.294 38.934 0.812 191 163 113
-17.197 39.332 0.810 202 172 122
-17.028 39.376 0.811 209 180 124
-17.113 39.223 0.811 197 162 106
-16.944 39.586 0.810 225 193 134
-17.311 38.880 0.812 195 163 114
-17.291 38.918 0.812 189 161 111
-16.993 39.305 0.812 202 172 120
-17.288 38.699 0.814 195 165 113
-17.248 39.499 0.809 214 184 134
-17.230 39.526 0.809 218 190 143
-17.294 38.884 0.813 196 166 114
-17.009 39.577 0.810 220 196 152
-17.039 39.383 0.811 206 175 120
-17.110 39.017 0.813 184 153 96
-16.880 39.610 0.810 225 201 157
-17.184 39.557 0.809 215 186 146
-17.237 38.966 0.812 188 158 106
-16.923 39.498 0.811 218 186 127
-17.271 38.819 0.813 185 156 98
-16.916 39.614 0.810 231 202 158
-17.031 39.371 0.811 210 181 123
-17.278 39.012 0.812 189 158 103
-17.021 39.460 0.811 210 179 125
-17.204 38.799 0.813 199 169 119
-17.292 39.292 0.810 197 164 113
-17.263 39.541 0.809 219 188 142
-17.244 38.842 0.813 201 171 121
-17.232 39.231 0.811 193 160 106
-17.211 39.489 0.809 207 179 132
-16.900 39.545 0.811 222 194 144
-16.891 39.559 0.811 224 193 138
-17.162 39.302 0.811 204 171 118
-17.128 39.268 0.811 193 165 102
-17.246 38.774 0.813 188 165 115
-17.209 39.279 0.811 188 158 104
-17.176 39.490 0.810 208 177 130
-17.140 39.179 0.812 190 160 100
-17.237 38.747 0.814 191 163 113
-16.947 39.590 0.810 226 194 137
-17.108 39.226 0.811 197 162 104
-17.224 39.392 0.810 202 169 118
-17.190 38.897 0.813 192 164 114
-17.235 38.770 0.813 191 165 116
-17.328 38.660 0.814 198 167 112
-17.272 39.133 0.811 189 159 107
-17.319 38.651 0.814 198 166 109
-16.926 39.520 0.811 221 189 132
-17.164 39.300 0.811 203 172 118
-17.152 39.507 0.810 218 186 139
-17.119 39.536 0.810 221 192 150
-16.902 39.607 0.810 228 201 154
-17.291 38.827 0.813 188 158 106
-17.172 39.189 0.811 194 159 103
-17.198 39.130 0.812 187 158 102
-17.140 39.054 0.812 191 158 104
-17.277 39.512 0.809 212 185 130
-17.031 39.245 0.812 202 170 109
-17.214 38.761 0.814 192 162 110
-17.271 38.643 0.814 198 162 110
-16.901 39.540 0.811 222 194 144
-17.338 38.550 0.814 201 170 113
-17.198 39.195 0.811 201 168 114
-17.187 39.301 0.811 201 169 118
-17.253 39.015 0.812 193 162 108
-17.133 39.318 0.811 200 168 111
-17.258 38.710 0.814 197 164 121
-17.219 39.026 0.812 194 163 108
-17.250 39.517 0.809 206 175 129
-17.284 38.995 0.812 193 164 108
-17.191 39.117 0.812 185 161 101
-17.276 38.618 0.814 199 164 110
-17.233 39.043 0.812 191 160 106
-17.252 39.186 0.811 197 165 106
-16.987 39.541 0.810 216 184 135
-17.245 39.291 0.810 200 168 119
-17.123 39.442 0.810 211 183 135
-17.222 39.280 0.811 186 155 98
-17.096 39.042 0.813 195 163 104
-17.275 39.100 0.811 191 160 103
-17.157 39.419 0.810 210 179 125
-17.287 39.412 0.810 199 167 108
-16.899 39.620 0.810 224 201 157
-16.976 39.473 0.811 217 183 119
-16.989 39.349 0.811 208 176 119
-17.283 38.649 0.814 198 165 111
-17.195 38.824 0.813 177 147 95
-17.150 38.930 0.813 187 160 107
-17.289 38.958 0.812 193 163 113
-17.327 38.668 0.814 196 165 110
-17.325 38.728 0.813 200 170 120
-17.239 39.566 0.809 213 184 142
-17.076 39.316 0.811 203 172 115
-17.034 39.302 0.811 197 167 107
-17.162 39.379 0.810 201 168 115
-17.232 38.935 0.813 190 160 106
-17.053 39.160 0.812 196 160 100
-17.195 38.886 0.813 191 165 114
-17.221 39.126 0.811 189 158 103
-17.084 39.272 0.811 185 150 94
-17.238 39.420 0.810 209 176 123
-17.181 38.890 0.813 179 149 99
-17.148 39.229 0.811 198 166 107
-17.095 39.339 0.811 203 171 114
-17.160 39.393 0.810 209 178 123
-17.146 39.339 0.811 202 171 117
-17.136 39.268 0.811 201 172 112
-16.964 39.459 0.811 216 181 115
-17.274 38.750 0.813 190 160 110
-17.081 39.253 0.811 197 165 104
-17.139 39.230 0.811 195 163 102
-17.211 39.081 0.812 191 161 107
-17.131 39.288 0.811 201 170 116
-17.208 39.553 0.809 213 186 141
-17.053 39.595 0.810 219 194 154
-17.039 39.437 0.811 215 185 135
-16.977 39.356 0.811 207 177 117
-17.296 39.312 0.810 198 166 109
-17.139 38.990 0.813 185 155 101
-17.041 39.462 0.810 207 179 129
-17.137 39.567 0.809 222 193 153
-17.035 39.355 0.811 204 173 116
-17.283 38.782 0.813 194 163 116
-17.277 39.396 0.810 202 167 111
-16.959 39.451 0.811 215 177 112
-17.096 39.253 0.811 198 166 105
-17.002 39.502 0.810 215 188 133
-17.230 39.191 0.811 190 159 102
-17.241 38.895 0.813 180 153 98
-17.102 39.159 0.812 196 161 103
-17.016 39.333 0.811 204 172 113
-17.126 39.481 0.810 209 182 137
-17.318 38.775 0.813 193 162 115
-17.313 38.928 0.812 189 163 112
-17.145 39.514 0.810 210 183 138
-16.902 39.543 0.811 222 194 144
-17.289 39.282 0.810 199 166 115
-17.114 39.368 0.811 205 178 125
-17.226 38.993 0.812 190 161 105
-17.259 39.018 0.812 193 163 109
-17.313 38.625 0.814 201 166 110
-17.271 39.215 0.811 196 166 114
-17.344 38.424 0.815 174 137 92
-17.194 39.101 0.812 189 157 98
-17.028 39.585 0.810 218 197 154
-17.138 38.959 0.813 193 162 108
-17.022 39.382 0.811 206 175 120
-17.185 38.991 0.812 192 162 112
-17.073 39.540 0.810 218 190 150
-17.201 38.999 0.812 190 158 107
-16.958 39.483 0.811 216 177 112
-17.278 39.258 0.810 199 167 116
-17.134 39.574 0.809 219 190 150
-16.927 39.530 0.811 220 189 135
-17.092 39.320 0.811 202 171 116
-17.306 38.604 0.814 193 162 107
-17.324 38.525 0.814 204 168 110
-17.172 39.180 0.811 194 159 101
-17.240 39.486 0.809 216 185 138
-17.203 38.922 0.813 185 157 107
-17.250 39.049 0.812 191 158 107
-17.013 39.292 0.812 204 173 118
-17.195 38.851 0.813 190 160 108
-17.228 38.911 0.813 185 158 105
-17.155 39.415 0.810 209 178 124
-17.169 39.339 0.811 204 171 118
-17.077 39.250 0.811 195 163 102
-16.998 39.469 0.811 211 181 131
-17.197 39.504 0.809 214 186 139
-17.202 39.079 0.812 194 163 108
-17.178 39.065 0.812 194 162 105
-17.149 39.018 0.812 195 162 108
-17.119 39.148 0.812 194 159 101
-17.053 39.547 0.810 217 192 152
-17.094 39.069 0.812 184 154 94
-17.097 39.428 0.810 204 174 122
-17.064 39.171 0.812 186 156 94
-17.166 39.532 0.809 211 182 138
-16.996 39.551 0.810 221 193 146
-17.175 39.495 0.810 215 184 138
-17.025 39.403 0.811 208 179 121
-17.237 39.471 0.809 209 181 133
-17.217 39.217 0.811 187 160 105
-17.127 39.561 0.809 214 185 145
-17.090 39.514 0.810 212 185 140
-17.274 38.901 0.813 184 157 104
-17.278 39.166 0.811 192 159 106
-16.991 39.559 0.810 226 198 148
-16.922 39.505 0.811 217 185 126
-17.246 38.930 0.812 190 159 104
-17.258 38.925 0.812 190 159 104
-17.238 38.799 0.813 195 165 115
-17.175 39.415 0.810 210 179 124
-16.977 39.450 0.811 211 175 113
-16.998 39.599 0.810 223 198 158
-17.272 38.771 0.813 196 168 120
-17.305 39.083 0.811 190 159 104
-17.237 39.225 0.811 194 158 106
-17.209 38.946 0.813 192 162 112
-17.233 39.497 0.809 207 176 129
-17.050 39.171 0.812 196 162 101
-17.140 39.567 0.809 220 191 151
-17.297 39.196 0.811 193 161 110
-17.304 38.658 0.814 197 165 108
-17.191 39.048 0.812 188 157 100
-17.174 38.990 0.812 195 165 113
-17.264 39.103 0.811 192 160 103
-16.884 39.594 0.810 224 195 139
-17.157 38.922 0.813 184 157 104
-17.161 39.526 0.809 219 190 146
-17.125 39.447 0.810 214 183 136
-17.214 39.154 0.811 191 160 106
-17.150 39.178 0.812 197 165 108
-17.179 39.577 0.809 219 190 148
-17.265 39.378 0.810 208 175 121
-17.172 39.374 0.810 205 169 119
-17.084 39.461 0.810 217 184 139
-17.240 39.056 0.812 192 160 109
-17.197 39.431 0.810 202 172 120
-17.225 39.294 0.810 200 170 118
-16.950 39.575 0.810 223 191 132
-17.231 39.264 0.811 193 160 106
-17.284 39.375 0.810 202 169 115
-17.162 38.968 0.813 193 163 111
-17.306 38.603 0.814 193 162 107
-17.139 39.136 0.812 194 159 101
-17.211 39.256 0.811 194 163 108
-17.227 39.269 0.811 192 159 105
-17.277 38.947 0.812 189 159 107
-17.287 39.089 0.811 191 160 105
-17.001 39.331 0.811 201 170 113
-17.126 39.335 0.811 202 169 115
-17.080 39.418 0.810 206 179 126
-16.969 39.530 0.810 216 182 121
-17.151 39.073 0.812 193 161 104
-17.236 39.363 0.810 210 179 124
-17.063 39.285 0.811 201 170 113
-17.186 39.094 0.812 192 160 101
-17.172 39.393 0.810 205 172 119
-17.284 39.436 0.809 206 169 114
-17.265 39.285 0.810 200 170 120
-17.259 39.010 0.812 189 158 104
-17.137 38.980 0.813 190 159 105
-17.032 39.221 0.812 202 169 115
-17.174 38.981 0.813 197 167 117
-16.948 39.512 0.811 225 190 124
-17.164 38.969 0.813 195 165 115
-17.278 38.715 0.814 194 163 117
-17.148 39.297 0.811 199 168 113
-16.907 39.529 0.811 224 197 144
-17.214 39.349 0.810 205 173 122
-17.201 38.843 0.813 196 164 117
-17.239 39.009 0.812 191 159 108
-17.045 39.581 0.810 216 191 150
-17.122 39.172 0.812 194 164 104
-17.096 39.131 0.812 191 159 100
-17.107 39.287 0.811 194 163 106
-17.149 39.473 0.810 210 182 135
-17.238 38.723 0.814 194 162 115
-17.259 39.558 0.809 213 184 140
-17.064 39.291 0.811 189 158 101
-17.106 39.230 0.811 201 167 106
-17.033 39.555 0.810 220 197 156
-17.113 39.084 0.812 187 156 99
-17.065 39.594 0.810 222 194 155
-17.309 38.950 0.812 195 163 114
-17.214 39.417 0.810 206 170 120
-17.180 39.498 0.810 209 178 132
-17.294 39.315 0.810 199 167 110
-17.231 38.934 0.813 190 160 106
-17.135 39.163 0.812 195 163 104
-17.231 39.560 0.809 210 181 139
-17.109 39.009 0.813 189 157 100
-17.155 39.196 0.811 196 163 109
-17.202 38.904 0.813 184 161 111
-17.215 39.555 0.809 208 182 133
-17.176 39.037 0.812 195 164 110
-17.329 38.591 0.814 195 166 110
-17.286 39.122 0.811 194 164 110
-17.073 39.436 0.810 213 185 137
-17.229 38.734 0.814 193 163 113
-17.035 39.334 0.811 203 169 108
-17.022 39.239 0.812 198 163 105
-17.337 38.582 0.814 196 167 111
-16.995 39.460 0.811 217 186 132
-17.188 38.943 0.813 194 164 114
-17.257 38.992 0.812 188 160 110
-17.031 39.366 0.811 206 175 118
-17.239 39.553 0.809 211 183 136
-17.207 39.352 0.810 203 171 120
-17.262 38.651 0.814 196 163 110
-17.087 39.574 0.810 218 193 152
-17.239 39.352 0.810 203 170 116
-17.286 39.359 0.810 199 163 111
-16.938 39.612 0.810 227 199 151
-17.002 39.364 0.811 206 171 115
-17.189 39.463 0.810 211 178 127
-17.030 39.297 0.811 195 165 105
-17.224 39.106 0.812 190 163 108
-17.131 39.176 0.812 192 162 100
-17.009 39.455 0.811 208 178 124
-16.997 39.458 0.811 211 180 126
-17.214 39.313 0.810 201 168 123
-17.178 38.972 0.813 194 164 114
-17.144 38.985 0.813 190 163 110
-17.102 39.271 0.811 194 162 105
-17.063 39.237 0.812 198 169 109
-17.322 38.800 0.813 193 162 116
-17.304 38.563 0.814 198 165 111
-17.225 39.084 0.812 192 162 110
-17.241 39.371 0.810 203 170 116
-17.036 39.306 0.811 204 172 113
-17.173 39.529 0.809 219 191 143
-17.308 38.729 0.813 196 168 118
-16.940 39.537 0.810 215 184 130
-17.246 38.976 0.812 189 161 111
-17.088 39.483 0.810 206 175 128
-17.047 39.553 0.810 222 197 157
-17.265 39.048 0.812 193 163 109
-17.062 39.427 0.811 210 182 132
-17.175 39.460 0.810 214 182 131
-17.140 39.272 0.811 202 170 119
-17.041 39.509 0.810 212 184 137
-17.056 39.149 0.812 194 159 101
-17.295 39.317 0.810 202 171 114
-17.189 38.882 0.813 191 166 112
-17.132 39.089 0.812 191 159 100
-17.307 38.786 0.813 195 167 119
-17.207 39.391 0.810 208 175 122
-17.170 39.112 0.812 187 156 99
-17.270 39.178 0.811 194 159 105
-17.113 39.501 0.810 214 183 137
-17.098 39.179 0.812 189 157 96
-17.305 38.870 0.813 190 160 110
-16.886 39.581 0.810 224 193 147
-17.186 39.189 0.811 192 157 103
-17.258 39.201 0.811 184 148 98
-17.076 39.359 0.811 204 172 115
-17.334 38.585 0.814 195 166 110
-17.115 39.404 0.810 206 174 123
-17.151 39.317 0.811 203 171 112
-16.934 39.540 0.810 224 192 141
-17.204 39.332 0.810 204 172 123
-17.125 39.313 0.811 206 173 120
-17.034 39.582 0.810 220 197 155
-17.193 38.912 0.813 192 166 115
-17.258 38.977 0.812 189 161 111
-17.161 39.491 0.810 212 180 133
-17.205 38.862 0.813 188 161 108
-17.158 39.278 0.811 204 172 125
-17.099 39.093 0.812 186 157 97
-17.067 39.498 0.810 208 184 136
-17.140 39.215 0.811 200 168 111
-17.126 38.987 0.813 191 161 107
-17.091 39.391 0.811 202 173 117
-17.238 39.469 0.809 207 179 131
-17.238 39.178 0.811 188 162 105
-17.258 39.371 0.810 198 165 111
-17.289 38.954 0.812 192 162 112
-17.257 38.709 0.814 197 164 121
-17.107 39.215 0.812 200 165 109
-16.914 39.582 0.810 225 197 147
-16.949 39.458 0.811 216 183 116
-17.088 39.452 0.810 217 186 139
-17.152 38.943 0.813 189 159 107
-17.129 39.228 0.811 198 163 107
-17.310 38.798 0.813 194 166 119
-17.092 39.367 0.811 206 175 120
-17.252 38.738 0.814 192 162 112
-17.099 39.487 0.810 215 187 139
-17.268 39.336 0.810 201 169 120
-17.262 39.190 0.811 193 158 102
-17.040 39.518 0.810 220 191 149
-17.228 38.806 0.813 194 164 112
-17.061 39.172 0.812 186 156 94
-17.218 39.441 0.810 211 179 128
-17.087 39.365 0.811 199 168 113
-17.183 39.148 0.812 190 158 101
-16.991 39.422 0.811 213 177 125
-17.185 39.364 0.810 206 171 117
-17.113 39.036 0.813 191 160 105
-17.077 39.197 0.812 199 165 104
-17.078 39.182 0.812 192 162 98
-17.293 38.862 0.813 193 165 115
-17.214 39.361 0.810 201 170 116
-17.316 38.670 0.814 196 163 109
-16.929 39.539 0.811 229 198 144
-17.306 39.025 0.812 190 166 118
-17.231 39.083 0.812 187 160 107
-17.206 39.065 0.812 191 161 107
-17.262 39.232 0.811 195 164 110
-17.270 39.328 0.810 200 167 122
-17.042 39.385 0.811 205 174 119
-17.234 39.492 0.809 214 183 136
-17.307 38.552 0.814 197 162 108
-17.058 39.378 0.811 210 178 121
-17.091 39.085 0.812 183 157 96
-17.243 39.464 0.809 209 178 131
-17.097 39.451 0.810 220 189 143
-17.225 38.719 0.814 192 160 109
-17.216 38.863 0.813 187 160 113
-17.146 39.252 0.811 196 165 111
-17.128 39.385 0.810 204 173 118
-17.190 39.295 0.811 201 174 121
-17.256 38.733 0.814 189 164 110
-17.314 38.591 0.814 194 163 109
-16.949 39.569 0.810 224 192 133
-17.163 39.558 0.809 213 184 142
-17.190 38.841 0.813 194 162 111
-17.150 38.932 0.813 190 160 110
-17.211 39.082 0.812 189 160 104
-17.124 39.014 0.813 189 157 100
-17.083 39.372 0.811 208 173 115
-17.064 39.550 0.810 221 193 154
-17.300 38.653 0.814 199 166 112
-17.209 38.984 0.812 184 162 105
-16.944 39.603 0.810 229 198 151
-16.994 39.453 0.811 218 187 132
-17.318 38.910 0.812 197 167 117
-17.189 39.080 0.812 189 158 101
-17.280 38.859 0.813 187 161 110
-17.221 39.540 0.809 204 176 129
-17.138 39.240 0.811 190 159 95
-17.152 39.522 0.810 207 178 134
-17.323 38.740 0.813 193 163 109
-17.093 39.374 0.811 204 173 119
-16.964 39.414 0.811 215 181 117
-17.245 39.472 0.809 210 179 132
-17.263 38.835 0.813 191 163 115
-17.181 39.260 0.811 195 163 112
-17.088 39.076 0.812 188 159 99
-17.268 38.643 0.814 199 162 110
-17.209 38.829 0.813 186 156 104
-17.161 39.117 0.812 188 159 101
-17.222 39.282 0.811 193 164 108
-17.022 39.540 0.810 215 194 151
-17.258 38.646 0.814 196 163 110
-17.161 39.300 0.811 203 172 117
-17.270 38.664 0.814 197 164 110
-17.291 39.038 0.812 197 167 115
-17.093 39.147 0.812 195 163 104
-17.121 39.558 0.809 225 196 156
-16.902 39.566 0.810 224 196 146
-16.914 39.576 0.810 220 192 142
-17.031 39.479 0.810 216 186 136
-17.179 39.355 0.810 209 174 120
-17.320 38.637 0.814 197 166 109
-17.087 39.317 0.811 203 172 115
-17.157 39.385 0.810 198 165 111
-17.111 39.018 0.813 187 156 101
-17.222 39.068 0.812 190 160 106
-17.217 39.149 0.811 190 159 104
-16.991 39.482 0.811 217 186 131
-17.083 39.310 0.811 199 168 111
-16.952 39.540 0.810 219 187 130
-16.961 39.577 0.810 227 192 136
-17.199 39.178 0.811 193 160 106
-17.301 38.906 0.812 189 161 111
-17.157 39.545 0.809 220 191 147
-17.285 38.847 0.813 191 165 116
-17.236 39.375 0.810 201 168 115
-17.209 39.488 0.809 211 183 136
-17.221 39.322 0.810 204 172 123
-17.085 39.527 0.810 216 189 146
-17.157 39.386 0.810 198 165 111
-17.262 38.958 0.812 193 163 111
-17.188 38.842 0.813 194 162 111
-16.907 39.537 0.811 227 199 149
-17.226 39.448 0.810 202 170 119
-17.131 39.581 0.809 217 189 149
-17.046 39.504 0.810 215 187 140
-17.212 39.567 0.809 214 187 142
-17.119 39.129 0.812 188 153 95
-17.147 39.086 0.812 191 159 102
-17.042 39.344 0.811 206 174 115
-17.052 39.495 0.810 215 188 141
-17.173 39.072 0.812 193 162 105
-17.342 38.497 0.815 201 166 112
-16.970 39.409 0.811 219 183 121
-17.260 39.054 0.812 186 154 103
-17.159 38.927 0.813 186 159 106
-16.997 39.517 0.810 222 192 140
-17.180 38.905 0.813 189 161 111
-17.285 39.490 0.809 202 172 120
-17.188 39.434 0.810 207 177 125
-17.016 39.493 0.810 212 184 136
-17.011 39.437 0.811 208 182 125
-17.047 39.386 0.811 206 173 119
-17.185 39.006 0.812 196 163 112
-17.072 39.406 0.811 201 174 121
-16.894 39.602 0.810 226 198 151
-17.238 39.492 0.809 215 184 137
-17.233 39.299 0.810 201 169 120
-17.234 39.395 0.810 206 173 122
-17.171 38.899 0.813 184 154 102
-17.021 39.541 0.810 216 193 151
-17.318 38.658 0.814 197 165 108
-17.296 38.592 0.814 193 161 110
-17.204 39.218 0.811 196 170 113
-17.045 39.358 0.811 205 173 114
-17.229 39.012 0.812 190 157 104
-17.240 39.490 0.809 205 174 127
-17.259 38.714 0.814 195 164 118
-17.110 39.554 0.810 220 191 151
-16.975 39.439 0.811 216 180 118
-17.191 39.312 0.811 203 170 117
-17.288 39.187 0.811 189 159 105
-17.252 38.973 0.812 189 161 111
-17.268 39.186 0.811 191 156 102
-17.022 39.344 0.811 210 178 119
-17.086 39.222 0.812 202 170 111
-17.011 39.482 0.810 216 185 138
-17.143 39.004 0.813 190 161 105
-17.228 38.885 0.813 198 171 118
-17.259 39.238 0.811 197 166 112
-17.074 39.416 0.811 209 184 130
-17.168 39.552 0.809 217 188 144
-17.220 38.797 0.813 195 165 115
-17.266 38.981 0.812 184 161 111
-17.166 39.145 0.812 192 160 101
-17.145 39.243 0.811 194 164 104
-17.225 39.050 0.812 193 162 108
-17.261 38.905 0.813 186 156 104
-17.306 38.996 0.812 183 160 106
